ply
format ascii 1.0
element vertex 792
property float x
property float y
property float z
property float nx
property float ny
property float nz
end_header
-24.987751 -9.956030 4.898148 -0.708231 -0.281251 -0.647538
-22.263300 -15.094891 4.898148 -0.631137 -0.425951 -0.648253
-18.497841 -19.527931 4.898148 -0.524419 -0.549704 -0.650238
-13.867443 -23.047869 4.898148 -0.391215 -0.650955 -0.650545
-8.588619 -25.490112 4.898148 -0.239924 -0.715580 -0.656034
-2.908201 -26.740467 4.898148 -0.076675 -0.751715 -0.655015
2.908199 -26.740467 4.898148 0.087955 -0.751436 -0.653918
8.588617 -25.490112 4.898148 0.248074 -0.715306 -0.653296
13.867441 -23.047869 4.898148 0.396479 -0.645397 -0.652892
18.497839 -19.527931 4.898148 0.526312 -0.545145 -0.652544
22.263300 -15.094891 4.898148 0.631524 -0.419291 -0.652206
24.987749 -9.956030 4.898148 0.707184 -0.273745 -0.651885
26.543802 -4.351635 4.898148 0.749754 -0.115338 -0.651588
26.858698 1.456238 4.898148 0.757249 0.048499 -0.651323
25.917707 7.196018 4.898148 0.729338 0.210086 -0.651099
23.764833 12.599319 4.898148 0.667352 0.361854 -0.650924
20.500746 17.413490 4.898148 0.574223 0.496706 -0.650808
16.278063 21.413429 4.898148 0.454342 0.608346 -0.650759
11.294237 24.412098 4.898148 0.313353 0.691587 -0.650782
6.029440 28.366280 9.972473 0.213432 0.974187 -0.073522
0.000000 29.000000 9.972473 0.006049 0.997273 -0.073549
-6.029440 28.366280 9.972473 -0.201526 0.976627 -0.074749
-11.795364 26.492821 9.972473 -0.400523 0.913241 -0.074645
-17.045773 23.461494 9.972473 -0.581822 0.809868 -0.074813
-21.551201 19.404789 9.972473 -0.737612 0.671044 -0.075018
-25.114738 14.500000 9.972473 -0.861095 0.502841 -0.075271
-27.580639 8.961494 9.972473 -0.946871 0.312609 -0.075569
-28.841135 3.031326 9.972473 -0.991180 0.108664 -0.075858
-28.841135 -3.031324 9.972473 -0.992073 -0.100049 -0.076030
-27.580639 -8.961493 9.972473 -0.949533 -0.304340 -0.075924
-25.114738 -14.499999 9.972473 -0.865524 -0.495181 -0.075257
-21.551201 -19.404787 9.972473 -0.744008 -0.664132 -0.073354
-17.045773 -23.461493 9.972473 -0.591039 -0.803711 -0.068712
-11.795364 -26.492817 9.972473 -0.411422 -0.909010 -0.066583
-6.029440 -28.366280 9.972473 -0.212196 -0.975081 -0.064732
0.000000 -29.000000 9.972473 -0.006168 -0.997759 -0.066622
6.029440 -28.366280 9.972473 0.200819 -0.977298 -0.067536
11.795362 -26.492817 9.972473 0.399318 -0.914273 -0.068193
17.045771 -23.461493 9.972473 0.580528 -0.811332 -0.068749
21.551199 -19.404787 9.972473 0.736459 -0.672929 -0.069246
25.114737 -14.499999 9.972473 0.860237 -0.505103 -0.069730
27.580637 -8.961493 9.972473 0.946429 -0.315187 -0.070215
28.841135 -3.031324 9.972473 0.991249 -0.111475 -0.070701
28.841135 3.031326 9.972473 0.992723 0.097127 -0.071182
27.580637 8.961494 9.972473 0.950772 0.301493 -0.071653
25.114737 14.500000 9.972473 0.867218 0.492680 -0.072109
21.551199 19.404789 9.972473 0.745706 0.662314 -0.072542
17.045771 23.461494 9.972473 0.591549 0.802963 -0.072940
11.795362 26.492821 9.972473 0.411494 0.908462 -0.073282
4.155058 28.451149 8.105743 0.138609 0.956380 -0.257148
-1.882107 28.691631 8.107014 -0.064818 0.964197 -0.257143
-7.899225 27.646175 8.104218 -0.266292 0.928882 -0.257424
-13.520507 25.375767 8.105820 -0.455481 0.852411 -0.256772
-18.535025 21.981586 8.106060 -0.623951 0.738090 -0.256727
-22.726055 17.614258 8.105957 -0.764676 0.591046 -0.256779
-25.910830 12.464363 8.105686 -0.871501 0.417726 -0.256888
-27.947678 6.756802 8.105400 -0.939682 0.225734 -0.256986
-28.743179 0.745335 8.105324 -0.966129 0.023613 -0.256977
-28.261147 -5.295181 8.105675 -0.949663 -0.179444 -0.256788
-26.532003 -11.081690 8.106956 -0.891299 -0.374013 -0.256322
-23.662012 -16.338053 8.111591 -0.794580 -0.550965 -0.255108
-19.846901 -20.814499 8.132450 -0.666164 -0.702347 -0.250866
-15.357156 -24.349266 8.239677 -0.517377 -0.824156 -0.230410
-10.211983 -26.914675 8.236565 -0.336902 -0.912792 -0.230886
-4.802866 -28.356285 8.132679 -0.157178 -0.955059 -0.251310
1.061970 -28.734804 8.111206 0.037718 -0.965919 -0.256083
7.006868 -27.886292 8.106339 0.236502 -0.936893 -0.257486
12.692617 -25.799633 8.105186 0.427209 -0.866604 -0.257857
17.828714 -22.557865 8.104973 0.599677 -0.757554 -0.257876
22.171225 -18.307297 8.104973 0.745522 -0.614596 -0.257815
25.523462 -13.239079 8.104977 0.858066 -0.444169 -0.257754
27.735716 -7.579615 8.104980 0.932273 -0.253898 -0.257689
28.709208 -1.581736 8.104984 0.964830 -0.052284 -0.257622
28.400553 4.486572 8.104996 0.954288 0.151662 -0.257551
26.823732 10.354141 8.105011 0.901125 0.348825 -0.257478
24.049589 15.758762 8.105034 0.807729 0.530394 -0.257402
20.202799 20.458954 8.105076 0.678296 0.688258 -0.257322
15.456526 24.244968 8.105129 0.518650 0.815371 -0.257241
10.025049 26.948521 8.105232 0.335989 0.906075 -0.257175
-3.837875 27.768990 6.374653 -0.121317 0.860592 -0.494634
2.124573 27.953251 6.376251 0.063930 0.866485 -0.495092
8.002851 26.866356 6.374672 0.246071 0.833179 -0.495239
13.518011 24.558372 6.374779 0.417151 0.762048 -0.495246
18.421446 21.130684 6.374943 0.569331 0.656164 -0.495289
22.487818 16.737881 6.375038 0.695618 0.520311 -0.495371
25.529688 11.579952 6.375088 0.790195 0.360686 -0.495477
27.406935 5.892452 6.375114 0.848711 0.184584 -0.495598
28.033144 -0.064693 6.375126 0.868478 0.000057 -0.495728
27.379377 -6.019238 6.375130 0.848585 -0.184459 -0.495862
25.475332 -11.699100 6.375130 0.789939 -0.360533 -0.495996
22.407904 -16.844805 6.375130 0.695220 -0.520119 -0.496131
18.317148 -21.221302 6.375130 0.568754 -0.655928 -0.496264
13.389875 -24.628698 6.375130 0.416312 -0.761737 -0.496428
7.856478 -26.909758 6.375061 0.244999 -0.832624 -0.496702
1.992830 -27.962198 6.374954 0.063375 -0.865380 -0.497093
-3.871464 -27.766277 6.377987 -0.118085 -0.859613 -0.497112
-9.313456 -26.459175 6.405052 -0.283654 -0.821550 -0.494567
-13.484835 -24.774765 6.693188 -0.413632 -0.784617 -0.461827
-17.521872 -21.903723 6.403828 -0.540112 -0.682210 -0.492817
-9.667902 26.312962 6.374474 -0.301425 0.814999 -0.494894
-15.011065 23.675255 6.374760 -0.467087 0.732701 -0.494952
-19.675385 19.968185 6.374744 -0.611484 0.617336 -0.494958
-23.452587 15.356590 6.374733 -0.728299 0.474000 -0.494879
-26.172091 10.043571 6.374821 -0.812252 0.309038 -0.494714
-27.706488 4.266838 6.374939 -0.859412 0.129846 -0.494522
-27.981121 -1.706221 6.374905 -0.867465 -0.055304 -0.494414
-26.985661 -7.590645 6.374580 -0.836066 -0.237603 -0.494509
-24.783239 -13.100617 6.374313 -0.767127 -0.408171 -0.494887
-21.526329 -17.959387 6.377003 -0.665350 -0.558522 -0.495342
0.000000 24.426777 136.573227 0.000000 0.661375 0.750056
-5.435471 23.814346 136.573227 -0.147218 0.644519 0.750282
-10.598383 22.007767 136.573227 -0.287221 0.594971 0.750675
-15.229847 19.097622 136.573227 -0.412551 0.515642 0.750943
-19.097624 15.229847 136.573227 -0.516968 0.410526 0.751141
-22.007767 10.598381 136.573227 -0.595327 0.284947 0.751260
-23.814346 5.435471 136.573227 -0.643770 0.145206 0.751316
-24.426777 0.000000 136.573227 -0.659919 -0.001705 0.751335
-23.814346 -5.435469 136.573227 -0.643027 -0.148445 0.751319
-22.007767 -10.598381 136.573227 -0.593968 -0.287692 0.751289
-19.097624 -15.229845 136.573227 -0.515233 -0.412515 0.751244
-15.229847 -19.097622 136.573227 -0.410758 -0.516687 0.751207
-10.598383 -22.007765 136.573227 -0.285783 -0.595032 0.751176
-5.435471 -23.814346 136.573227 -0.146547 -0.643655 0.751154
0.000000 -24.426777 136.573227 0.000000 -0.660141 0.751142
5.435469 -23.814346 136.573227 0.146547 -0.643657 0.751152
10.598379 -22.007765 136.573227 0.285783 -0.595035 0.751173
15.229845 -19.097622 136.573227 0.410756 -0.516684 0.751210
19.097624 -15.229845 136.573227 0.515229 -0.412511 0.751248
22.007765 -10.598381 136.573227 0.593968 -0.287692 0.751289
23.814344 -5.435469 136.573227 0.643033 -0.148446 0.751314
24.426775 0.000000 136.573227 0.659919 -0.001705 0.751335
23.814344 5.435471 136.573227 0.643776 0.145207 0.751310
22.007765 10.598381 136.573227 0.595327 0.284946 0.751260
19.097624 15.229847 136.573227 0.516964 0.410523 0.751145
15.229845 19.097622 136.573227 0.412549 0.515638 0.750946
10.598379 22.007767 136.573227 0.287222 0.594974 0.750673
5.435469 23.814346 136.573227 0.147218 0.644520 0.750280
5.340502 23.398270 136.396454 -0.222040 -0.972821 0.065715
5.342398 23.406574 136.461151 -0.214798 -0.941093 0.261162
0.000000 24.000000 136.396454 -0.000000 -0.997838 0.065715
0.000000 24.008518 136.461151 -0.000000 -0.965296 0.261157
-5.340504 23.398270 136.396454 0.222040 -0.972821 0.065715
-5.342400 23.406574 136.461151 0.214799 -0.941094 0.261159
-10.413210 21.623253 136.396454 0.432945 -0.899021 0.065720
-10.416906 21.630928 136.461151 0.418824 -0.869698 0.261174
-14.963757 18.763958 136.396454 0.622142 -0.780143 0.065696
-14.969068 18.770615 136.461151 0.601856 -0.754700 0.261146
-18.763956 14.963757 136.396454 0.780141 -0.622143 0.065714
-18.770617 14.969067 136.461151 0.754700 -0.601853 0.261153
-21.623253 10.413212 136.396454 0.899021 -0.432946 0.065720
-21.630928 10.416908 136.461151 0.869700 -0.418827 0.261164
-23.398270 5.340504 136.396454 0.972820 -0.222040 0.065729
-23.406576 5.342400 136.461151 0.941090 -0.214797 0.261175
-24.000000 0.000000 136.396454 0.997837 -0.000000 0.065729
-24.008520 0.000000 136.461151 0.965293 0.000000 0.261170
-23.398270 -5.340502 136.396454 0.972820 0.222040 0.065729
-23.406576 -5.342398 136.461151 0.941090 0.214797 0.261175
-21.623253 -10.413210 136.396454 0.899021 0.432947 0.065714
-21.630928 -10.416904 136.461151 0.869700 0.418824 0.261169
-18.763956 -14.963755 136.396454 0.780141 0.622142 0.065718
-18.770617 -14.969066 136.461151 0.754699 0.601852 0.261157
-14.963757 -18.763954 136.396454 0.622142 0.780141 0.065718
-14.969068 -18.770615 136.461151 0.601851 0.754697 0.261168
-10.413210 -21.623253 136.396454 0.432946 0.899021 0.065720
-10.416906 -21.630928 136.461151 0.418825 0.869701 0.261163
-5.340504 -23.398270 136.396454 0.222040 0.972821 0.065715
-5.342400 -23.406574 136.461151 0.214799 0.941094 0.261159
0.000000 -24.000000 136.396454 0.000000 0.997838 0.065715
0.000000 -24.008518 136.461151 -0.000000 0.965296 0.261157
5.340502 -23.398270 136.396454 -0.222040 0.972821 0.065715
5.342398 -23.406574 136.461151 -0.214798 0.941093 0.261162
10.413210 -21.623253 136.396454 -0.432946 0.899021 0.065720
10.416906 -21.630928 136.461151 -0.418828 0.869703 0.261151
14.963755 -18.763954 136.396454 -0.622143 0.780141 0.065714
14.969065 -18.770615 136.461151 -0.601851 0.754698 0.261164
18.763956 -14.963755 136.396454 -0.780141 0.622142 0.065719
18.770617 -14.969066 136.461151 -0.754702 0.601853 0.261146
21.623251 -10.413210 136.396454 -0.899021 0.432946 0.065713
21.630926 -10.416904 136.461151 -0.869700 0.418824 0.261168
23.398268 -5.340502 136.396454 -0.972821 0.222040 0.065715
23.406572 -5.342398 136.461151 -0.941093 0.214798 0.261162
23.999998 0.000000 136.396454 -0.997838 0.000000 0.065715
24.008516 0.000000 136.461151 -0.965296 0.000000 0.261157
23.398268 5.340504 136.396454 -0.972821 -0.222040 0.065715
23.406572 5.342400 136.461151 -0.941093 -0.214798 0.261162
21.623251 10.413212 136.396454 -0.899021 -0.432945 0.065720
21.630926 10.416908 136.461151 -0.869700 -0.418827 0.261163
18.763956 14.963757 136.396454 -0.780141 -0.622143 0.065714
18.770617 14.969067 136.461151 -0.754703 -0.601854 0.261142
14.963755 18.763958 136.396454 -0.622142 -0.780143 0.065691
14.969065 18.770615 136.461151 -0.601856 -0.754702 0.261141
10.413210 21.623253 136.396454 -0.432946 -0.899021 0.065720
10.416906 21.630928 136.461151 -0.418827 -0.869700 0.261164
-5.423948 23.763870 136.612961 -0.112793 0.494180 0.862011
0.000000 24.375000 136.612961 0.000000 0.506881 0.862016
5.423948 23.763870 136.612961 0.112794 0.494179 0.862012
10.575914 21.961117 136.612961 0.219926 0.456680 0.862018
15.197561 19.057144 136.612961 0.316039 0.396303 0.862011
19.057142 15.197563 136.612961 0.396288 0.316029 0.862022
21.961115 10.575916 136.612961 0.456680 0.219926 0.862019
23.763868 5.423950 136.612961 0.494180 0.112794 0.862011
24.374998 0.000000 136.612961 0.506881 -0.000000 0.862016
23.763868 -5.423946 136.612961 0.494180 -0.112792 0.862012
21.961115 -10.575916 136.612961 0.456680 -0.219926 0.862018
19.057142 -15.197563 136.612961 0.396291 -0.316032 0.862019
15.197561 -19.057140 136.612961 0.316036 -0.396298 0.862015
10.575914 -21.961115 136.612961 0.219928 -0.456684 0.862016
5.423948 -23.763866 136.612961 0.112792 -0.494169 0.862018
0.000000 -24.375000 136.612961 -0.000000 -0.506881 0.862016
-5.423948 -23.763866 136.612961 -0.112791 -0.494169 0.862018
-10.575916 -21.961115 136.612961 -0.219926 -0.456681 0.862018
-15.197565 -19.057140 136.612961 -0.316037 -0.396297 0.862015
-19.057144 -15.197563 136.612961 -0.396297 -0.316036 0.862015
-21.961117 -10.575916 136.612961 -0.456684 -0.219928 0.862016
-23.763868 -5.423946 136.612961 -0.494177 -0.112792 0.862014
-24.375000 0.000000 136.612961 -0.506881 0.000000 0.862016
-23.763868 5.423950 136.612961 -0.494176 0.112793 0.862014
-21.961117 10.575916 136.612961 -0.456684 0.219928 0.862016
-19.057144 15.197563 136.612961 -0.396294 0.316033 0.862018
-15.197565 19.057144 136.612961 -0.316040 0.396302 0.862011
-10.575916 21.961117 136.612961 -0.219924 0.456677 0.862021
0.000000 24.033493 136.521454 -0.000000 -0.863662 0.504071
-5.347956 23.430923 136.521454 0.192182 -0.842006 0.504075
-10.427744 21.653431 136.521454 0.374731 -0.778135 0.504067
-14.984639 18.790142 136.521454 0.538482 -0.675235 0.504079
-18.790142 14.984638 136.521454 0.675236 -0.538482 0.504076
-21.653431 10.427742 136.521454 0.778133 -0.374727 0.504071
-23.430925 5.347958 136.521454 0.842012 -0.192185 0.504065
-24.033495 0.000000 136.521454 0.863668 -0.000000 0.504061
-23.430925 -5.347956 136.521454 0.842011 0.192184 0.504067
-21.653431 -10.427742 136.521454 0.778130 0.374728 0.504076
-18.790142 -14.984637 136.521454 0.675237 0.538484 0.504073
-14.984639 -18.790142 136.521454 0.538484 0.675239 0.504071
-10.427744 -21.653429 136.521454 0.374731 0.778135 0.504066
-5.347956 -23.430923 136.521454 0.192183 0.842012 0.504065
0.000000 -24.033493 136.521454 0.000000 0.863662 0.504071
5.347956 -23.430923 136.521454 -0.192185 0.842012 0.504065
10.427740 -21.653429 136.521454 -0.374731 0.778139 0.504061
14.984636 -18.790142 136.521454 -0.538481 0.675236 0.504077
18.790140 -14.984637 136.521454 -0.675241 0.538488 0.504064
21.653429 -10.427742 136.521454 -0.778134 0.374730 0.504067
23.430922 -5.347956 136.521454 -0.842005 0.192182 0.504077
24.033491 0.000000 136.521454 -0.863662 -0.000000 0.504071
23.430922 5.347958 136.521454 -0.842006 -0.192183 0.504075
21.653429 10.427742 136.521454 -0.778138 -0.374730 0.504062
18.790140 14.984638 136.521454 -0.675239 -0.538486 0.504068
14.984636 18.790142 136.521454 -0.538479 -0.675232 0.504086
10.427740 21.653431 136.521454 -0.374729 -0.778138 0.504062
5.347956 23.430923 136.521454 -0.192184 -0.842006 0.504075
0.000000 24.073223 136.573227 0.000000 -0.702394 0.711788
-5.356796 23.469658 136.573227 0.156295 -0.684778 0.711794
-10.444981 21.689224 136.573227 0.304762 -0.632844 0.711778
-15.009410 18.821205 136.573227 0.437933 -0.549151 0.711792
-18.821205 15.009411 136.573227 0.549151 -0.437935 0.711791
-21.689226 10.444981 136.573227 0.632840 -0.304760 0.711783
-23.469658 5.356796 136.573227 0.684788 -0.156298 0.711784
-24.073223 0.000000 136.573227 0.702402 -0.000000 0.711780
-23.469658 -5.356796 136.573227 0.684787 0.156298 0.711785
-21.689226 -10.444979 136.573227 0.632842 0.304759 0.711782
-18.821205 -15.009409 136.573227 0.549150 0.437933 0.711793
-15.009410 -18.821203 136.573227 0.437940 0.549160 0.711781
-10.444981 -21.689224 136.573227 0.304758 0.632838 0.711785
-5.356796 -23.469656 136.573227 0.156297 0.684785 0.711787
0.000000 -24.073223 136.573227 0.000000 0.702394 0.711788
5.356794 -23.469656 136.573227 -0.156298 0.684789 0.711783
10.444979 -21.689224 136.573227 -0.304758 0.632835 0.711788
15.009409 -18.821203 136.573227 -0.437942 0.549160 0.711780
18.821203 -15.009409 136.573227 -0.549150 0.437933 0.711793
21.689222 -10.444979 136.573227 -0.632842 0.304760 0.711781
23.469656 -5.356796 136.573227 -0.684779 0.156297 0.711793
24.073221 0.000000 136.573227 -0.702394 -0.000000 0.711788
23.469656 5.356796 136.573227 -0.684781 -0.156296 0.711791
21.689222 10.444981 136.573227 -0.632841 -0.304761 0.711782
18.821203 15.009411 136.573227 -0.549151 -0.437935 0.711791
15.009409 18.821205 136.573227 -0.437935 -0.549151 0.711791
10.444979 21.689224 136.573227 -0.304761 -0.632841 0.711782
5.356794 23.469658 136.573227 -0.156296 -0.684781 0.711791
0.000000 24.125000 136.612961 0.000000 -0.492891 0.870091
-5.368319 23.520138 136.612961 0.109679 -0.480535 0.870090
-10.467445 21.735874 136.612961 0.213855 -0.444075 0.870094
-15.041693 18.861687 136.612961 0.307314 -0.385360 0.870090
-18.861687 15.041691 136.612961 0.385364 -0.307316 0.870087
-21.735874 10.467445 136.612961 0.444081 -0.213858 0.870090
-23.520138 5.368317 136.612961 0.480530 -0.109677 0.870093
-24.125000 0.000000 136.612961 0.492891 0.000000 0.870091
-23.520138 -5.368317 136.612961 0.480532 0.109678 0.870092
-21.735874 -10.467445 136.612961 0.444078 0.213857 0.870092
-18.861687 -15.041691 136.612961 0.385360 0.307314 0.870090
-15.041693 -18.861683 136.612961 0.307313 0.385357 0.870091
-10.467445 -21.735874 136.612961 0.213857 0.444079 0.870091
-5.368319 -23.520136 136.612961 0.109678 0.480531 0.870093
0.000000 -24.125000 136.612961 -0.000000 0.492891 0.870091
5.368315 -23.520136 136.612961 -0.109677 0.480530 0.870093
10.467443 -21.735874 136.612961 -0.213857 0.444080 0.870091
15.041689 -18.861683 136.612961 -0.307316 0.385362 0.870088
18.861685 -15.041691 136.612961 -0.385360 0.307314 0.870090
21.735872 -10.467445 136.612961 -0.444072 0.213854 0.870095
23.520136 -5.368317 136.612961 -0.480527 0.109677 0.870095
24.124998 0.000000 136.612961 -0.492891 -0.000000 0.870091
23.520136 5.368317 136.612961 -0.480525 -0.109676 0.870096
21.735872 10.467445 136.612961 -0.444075 -0.213855 0.870094
18.861685 15.041691 136.612961 -0.385364 -0.307316 0.870087
15.041689 18.861687 136.612961 -0.307316 -0.385364 0.870087
10.467443 21.735874 136.612961 -0.213855 -0.444075 0.870094
5.368315 23.520138 136.612961 -0.109678 -0.480535 0.870090
0.000000 24.185295 136.637924 -0.000000 -0.250093 0.968222
-5.381735 23.578918 136.637924 0.055652 -0.243829 0.968220
-10.493607 21.790199 136.637924 0.108511 -0.225325 0.968222
-15.079286 18.908825 136.637924 0.155933 -0.195534 0.968221
-18.908825 15.079285 136.637924 0.195532 -0.155932 0.968221
-21.790199 10.493607 136.637924 0.225324 -0.108510 0.968222
-23.578920 5.381737 136.637924 0.243825 -0.055652 0.968221
-24.185295 0.000000 136.637924 0.250093 -0.000000 0.968222
-23.578920 -5.381733 136.637924 0.243826 0.055652 0.968221
-21.790199 -10.493607 136.637924 0.225325 0.108511 0.968222
-18.908825 -15.079285 136.637924 0.195533 0.155933 0.968221
-15.079286 -18.908825 136.637924 0.155930 0.195530 0.968222
-10.493607 -21.790197 136.637924 0.108512 0.225327 0.968221
-5.381735 -23.578918 136.637924 0.055651 0.243824 0.968221
0.000000 -24.185295 136.637924 -0.000000 0.250094 0.968222
5.381735 -23.578918 136.637924 -0.055652 0.243822 0.968222
10.493605 -21.790197 136.637924 -0.108512 0.225327 0.968222
15.079283 -18.908825 136.637924 -0.155928 0.195529 0.968222
18.908823 -15.079285 136.637924 -0.195533 0.155933 0.968221
21.790197 -10.493607 136.637924 -0.225325 0.108511 0.968222
23.578920 -5.381733 136.637924 -0.243823 0.055651 0.968222
24.185293 0.000000 136.637924 -0.250094 0.000000 0.968222
23.578920 5.381737 136.637924 -0.243821 -0.055651 0.968222
21.790197 10.493607 136.637924 -0.225324 -0.108510 0.968222
18.908823 15.079285 136.637924 -0.195532 -0.155932 0.968221
15.079283 18.908825 136.637924 -0.155932 -0.195532 0.968221
10.493605 21.790199 136.637924 -0.108510 -0.225324 0.968222
5.381735 23.578918 136.637924 -0.055653 -0.243827 0.968221
0.000000 24.250000 136.646454 -0.000000 0.009334 0.999956
-5.396133 23.642002 136.646454 -0.002077 0.009100 0.999956
-10.521681 21.848495 136.646454 -0.004050 0.008410 0.999956
-15.119629 18.959415 136.646454 -0.005822 0.007301 0.999956
-18.959415 15.119629 136.646454 -0.007302 0.005823 0.999956
-21.848495 10.521683 136.646454 -0.008410 0.004050 0.999956
-23.642002 5.396133 136.646454 -0.009099 0.002077 0.999956
-24.250000 0.000000 136.646454 -0.009335 -0.000000 0.999956
-23.642002 -5.396132 136.646454 -0.009098 -0.002077 0.999956
-21.848495 -10.521681 136.646454 -0.008409 -0.004049 0.999956
-18.959415 -15.119627 136.646454 -0.007300 -0.005822 0.999956
-15.119629 -18.959412 136.646454 -0.005818 -0.007296 0.999956
-10.521681 -21.848495 136.646454 -0.004051 -0.008412 0.999956
-5.396133 -23.642002 136.646454 -0.002077 -0.009102 0.999956
0.000000 -24.250000 136.646454 -0.000000 -0.009335 0.999956
5.396132 -23.642002 136.646454 0.002078 -0.009102 0.999956
10.521681 -21.848495 136.646454 0.004052 -0.008413 0.999956
15.119627 -18.959412 136.646454 0.005818 -0.007296 0.999956
18.959414 -15.119627 136.646454 0.007300 -0.005822 0.999956
21.848494 -10.521681 136.646454 0.008410 -0.004050 0.999956
23.642000 -5.396132 136.646454 0.009097 -0.002076 0.999956
24.249998 0.000000 136.646454 0.009334 0.000000 0.999956
23.642000 5.396133 136.646454 0.009097 0.002076 0.999956
21.848494 10.521683 136.646454 0.008412 0.004051 0.999956
18.959414 15.119629 136.646454 0.007302 0.005823 0.999956
15.119627 18.959415 136.646454 0.005822 0.007300 0.999956
10.521681 21.848495 136.646454 0.004051 0.008412 0.999956
5.396132 23.642002 136.646454 0.002077 0.009101 0.999956
0.000000 24.314705 136.637924 -0.000000 0.267466 0.963567
-5.410532 23.705086 136.637924 -0.059516 0.260756 0.963568
-10.549755 21.906792 136.637924 -0.116048 0.240976 0.963568
-15.159971 19.010002 136.637924 -0.166760 0.209111 0.963568
-19.010002 15.159969 136.637924 -0.209112 0.166761 0.963568
-21.906794 10.549755 136.637924 -0.240980 0.116050 0.963567
-23.705086 5.410530 136.637924 -0.260759 0.059516 0.963568
-24.314705 0.000000 136.637924 -0.267465 0.000000 0.963567
-23.705086 -5.410530 136.637924 -0.260761 -0.059517 0.963567
-21.906794 -10.549755 136.637924 -0.240979 -0.116049 0.963567
-19.010002 -15.159969 136.637924 -0.209111 -0.166760 0.963568
-15.159971 -19.010002 136.637924 -0.166764 -0.209116 0.963566
-10.549755 -21.906792 136.637924 -0.116050 -0.240981 0.963567
-5.410532 -23.705084 136.637924 -0.059517 -0.260763 0.963567
0.000000 -24.314705 136.637924 0.000000 -0.267465 0.963567
5.410528 -23.705084 136.637924 0.059516 -0.260761 0.963567
10.549753 -21.906792 136.637924 0.116050 -0.240981 0.963566
15.159971 -19.010002 136.637924 0.166768 -0.209120 0.963565
19.010000 -15.159969 136.637924 0.209111 -0.166760 0.963568
21.906790 -10.549755 136.637924 0.240976 -0.116048 0.963568
23.705084 -5.410530 136.637924 0.260756 -0.059516 0.963569
24.314703 0.000000 136.637924 0.267466 -0.000000 0.963567
23.705084 5.410530 136.637924 0.260754 0.059515 0.963569
21.906790 10.549755 136.637924 0.240977 0.116048 0.963568
19.010000 15.159969 136.637924 0.209112 0.166761 0.963568
15.159971 19.010002 136.637924 0.166765 0.209115 0.963567
10.549753 21.906792 136.637924 0.116048 0.240976 0.963568
5.410528 23.705086 136.637924 0.059515 0.260754 0.963569
-5.304167 22.380032 132.000000 -0.156574 0.660637 0.734195
-5.304167 22.380032 132.119446 -0.209679 0.885743 0.414118
0.000000 23.000000 132.000000 0.000000 0.678938 0.734195
0.000000 23.000000 132.119446 -0.000109 0.910835 0.412770
5.304163 22.380032 132.000000 0.156574 0.660638 0.734195
5.304163 22.380032 132.119446 0.209516 0.886210 0.413200
10.322382 20.553551 132.000000 0.304707 0.606722 0.734195
10.322382 20.553551 132.119446 0.407874 0.813479 0.414597
14.784113 17.619022 132.000000 0.436413 0.520097 0.734195
14.784113 17.619022 132.119446 0.584418 0.697365 0.414895
18.448832 13.734650 132.000000 0.544592 0.405434 0.734195
18.448832 13.734650 132.119446 0.729549 0.543810 0.414765
21.118971 9.109837 132.000000 0.623413 0.268914 0.734195
21.118971 9.109837 132.119446 0.835362 0.360947 0.414594
22.650576 3.993908 132.000000 0.668625 0.117897 0.734195
22.650576 3.993908 132.119446 0.896112 0.158593 0.414526
22.961088 -1.337330 132.000000 0.677790 -0.039477 0.734195
22.961088 -1.337330 132.119446 0.908499 -0.052335 0.414598
22.033758 -6.596474 132.000000 0.650416 -0.194722 0.734195
22.033758 -6.596474 132.119446 0.871868 -0.260447 0.414745
19.918585 -11.500000 132.000000 0.587978 -0.339469 0.734195
19.918585 -11.500000 132.119446 0.788190 -0.454497 0.414957
16.729593 -15.783557 132.000000 0.493843 -0.465916 0.734194
16.729593 -15.783557 132.119446 0.661974 -0.624007 0.415217
12.638704 -19.216219 132.000000 0.373083 -0.567245 0.734195
12.638704 -19.216219 132.119446 0.500024 -0.759811 0.415528
7.866461 -21.612930 132.000000 0.232211 -0.637993 0.734195
7.866461 -21.612930 132.119446 0.311113 -0.854611 0.415752
2.670135 -22.844482 132.000000 0.078820 -0.674347 0.734196
2.670135 -22.844482 132.119446 0.105480 -0.903417 0.415587
-2.670137 -22.844482 132.000000 -0.078820 -0.674348 0.734195
-2.670137 -22.844482 132.119446 -0.105432 -0.907179 0.407322
-7.866465 -21.612930 132.000000 -0.232211 -0.637993 0.734195
-7.866465 -21.612930 132.119446 -0.309943 -0.854764 0.416309
-12.638708 -19.216219 132.000000 -0.373083 -0.567245 0.734195
-12.638708 -19.216219 132.119446 -0.499040 -0.760306 0.415806
-16.729595 -15.783557 132.000000 -0.493842 -0.465916 0.734195
-16.729595 -15.783557 132.119446 -0.661198 -0.624785 0.415284
-19.918585 -11.500000 132.000000 -0.587978 -0.339469 0.734195
-19.918585 -11.500000 132.119446 -0.787654 -0.455483 0.414894
-22.033760 -6.596474 132.000000 -0.650416 -0.194722 0.734195
-22.033760 -6.596474 132.119446 -0.871553 -0.261546 0.414715
-22.961088 -1.337330 132.000000 -0.677790 -0.039477 0.734195
-22.961088 -1.337330 132.119446 -0.908387 -0.053470 0.414697
-22.650579 3.993908 132.000000 -0.668624 0.117896 0.734195
-22.650579 3.993908 132.119446 -0.896143 0.157498 0.414876
-21.118971 9.109837 132.000000 -0.623412 0.268914 0.734195
-21.118971 9.109837 132.119446 -0.835519 0.359954 0.415139
-18.448833 13.734650 132.000000 -0.544593 0.405434 0.734195
-18.448833 13.734650 132.119446 -0.729775 0.542962 0.415477
-14.784116 17.619022 132.000000 -0.436413 0.520097 0.734195
-14.784116 17.619022 132.119446 -0.584639 0.696645 0.415792
-10.322382 20.553551 132.000000 -0.304707 0.606722 0.734195
-10.322382 20.553551 132.119446 -0.408042 0.812843 0.415678
-2.658712 22.828827 132.248245 -0.122077 0.987855 0.096124
2.643789 22.830521 132.248383 0.107011 0.989565 0.096487
7.817339 21.612606 132.248932 0.331643 0.937294 0.107203
12.592108 19.226437 132.248810 0.539339 0.835375 0.106119
16.688982 15.801785 132.248703 0.717670 0.688417 0.105036
19.883509 11.526691 132.248688 0.857135 0.504379 0.104505
22.005342 6.631935 132.248749 0.950324 0.293179 0.104552
22.941526 1.379587 132.248810 0.992285 0.066165 0.104841
22.641153 -3.949013 132.248856 0.980754 -0.164467 0.105226
21.118917 -9.066847 132.248856 0.916320 -0.386291 0.105531
18.455214 -13.697502 132.248856 0.802388 -0.587324 0.105938
14.791941 -17.590199 132.248840 0.645059 -0.756687 0.106415
10.325304 -20.533024 132.248810 0.452768 -0.885183 0.107014
5.297518 -22.364128 132.248734 0.235856 -0.965792 0.107786
-0.009724 -22.983131 132.248215 0.007947 -0.995670 0.092622
-5.209044 -22.384914 132.248688 -0.220443 -0.969585 0.106349
-10.251225 -20.570168 132.248627 -0.438376 -0.892542 0.105806
-14.729744 -17.642384 132.248642 -0.632618 -0.767285 0.105206
-18.405958 -13.763677 132.248734 -0.792602 -0.600627 0.105023
-21.085398 -9.144575 132.248795 -0.909775 -0.401600 0.105007
-22.626282 -4.033375 132.248840 -0.977858 -0.180910 0.105189
-22.946400 1.295858 132.248871 -0.993182 0.049563 0.105510
-22.027565 6.557648 132.248871 -0.954893 0.277424 0.105902
-19.917187 11.468304 132.248886 -0.864976 0.490376 0.106523
-16.726501 15.761990 132.248886 -0.728211 0.676899 0.107317
-12.625954 19.204197 132.248917 -0.551873 0.826831 0.108567
-7.841423 21.603886 132.248917 -0.345416 0.931930 0.110430
5.188856 21.893509 132.619446 0.082787 0.270135 0.959257
4.115774 22.251587 132.602509 0.149758 0.635628 0.757330
0.000000 22.500000 132.619446 0.017566 0.267935 0.963277
-1.103975 22.602371 132.602432 0.001289 0.640208 0.768201
-5.188858 21.893509 132.619446 -0.043557 0.259124 0.964861
-6.275768 21.742298 132.602264 -0.157585 0.672640 0.722996
-10.097982 20.106735 132.619446 -0.106035 0.251328 0.962076
-11.131477 19.702881 132.602264 -0.314724 0.627964 0.711765
-14.462722 17.236000 132.619446 -0.167443 0.228439 0.959051
-15.387723 16.592934 132.602310 -0.454540 0.541040 0.707580
-18.047771 13.436069 132.619446 -0.222364 0.189171 0.956435
-18.807831 12.584400 132.602341 -0.568591 0.421819 0.706239
-20.659863 8.911797 132.619446 -0.265816 0.135586 0.954441
-21.206909 7.897114 132.602356 -0.650960 0.278909 0.706018
-22.158176 3.907085 132.619446 -0.293931 0.071489 0.953149
-22.457363 2.785898 132.602386 -0.697275 0.120829 0.706547
-22.461935 -1.308258 132.619446 -0.304596 0.001712 0.952480
-22.493986 -2.472481 132.602386 -0.705639 -0.043400 0.707242
-21.554764 -6.453072 132.619446 -0.297519 -0.068788 0.952235
-21.316750 -7.595261 132.602402 -0.675678 -0.204779 0.708184
-19.485573 -11.250000 132.619446 -0.273523 -0.135510 0.952272
-18.990295 -12.306940 132.602402 -0.609303 -0.354557 0.709253
-16.365908 -15.440436 132.619446 -0.234258 -0.194403 0.952539
-15.640722 -16.354259 132.602386 -0.510906 -0.485298 0.709550
-12.363953 -18.798475 132.619446 -0.183004 -0.243038 0.952597
-11.447603 -19.520508 132.602356 -0.385841 -0.591031 0.708385
-7.695454 -21.143084 132.619446 -0.123491 -0.282109 0.951401
-6.632511 -21.635887 132.602341 -0.238914 -0.663658 0.708857
-2.612091 -22.347862 132.619446 -0.049951 -0.273900 0.960460
-1.500748 -22.579666 132.602386 -0.075022 -0.652496 0.754069
2.612089 -22.347862 132.619446 0.015155 -0.293293 0.955903
3.756182 -22.315554 132.602386 0.080191 -0.684554 0.724538
7.695452 -21.143084 132.619446 0.080091 -0.273963 0.958399
8.795313 -20.850613 132.602310 0.240789 -0.659249 0.712328
12.363951 -18.798475 132.619446 0.144323 -0.253754 0.956441
13.371965 -18.256315 132.602325 0.389011 -0.589069 0.708285
16.365908 -15.440436 132.619446 0.202848 -0.217688 0.954707
17.227045 -14.674038 132.602356 0.515741 -0.484174 0.706814
19.485571 -11.250000 132.619446 0.251182 -0.167329 0.953367
20.149878 -10.299408 132.602371 0.613893 -0.352037 0.706545
21.554762 -6.453072 132.619446 0.285523 -0.105750 0.952519
21.983030 -5.370235 132.602386 0.677911 -0.200571 0.707253
22.461931 -1.308258 132.619446 0.302807 -0.037084 0.952330
22.628920 -0.153929 132.602402 0.704440 -0.038660 0.708710
22.158175 3.907085 132.619446 0.302138 0.033638 0.952671
22.054640 5.067909 132.602402 0.692532 0.124478 0.710567
20.659861 8.911797 132.619446 0.284051 0.101603 0.953411
20.292772 10.014698 132.602402 0.643843 0.280134 0.712033
18.047770 13.436069 132.619446 0.250728 0.162868 0.954259
17.438757 14.421562 132.602402 0.561706 0.420752 0.712358
14.462721 17.236000 132.619446 0.204385 0.214107 0.955189
13.646570 18.051712 132.602386 0.450948 0.540507 0.710280
10.097982 20.106735 132.619446 0.147244 0.251488 0.956594
9.122255 20.709343 132.602386 0.317208 0.636201 0.703298
3.055098 -22.728825 132.369064 0.131782 -0.968527 0.211162
-2.123688 -22.834539 132.369324 -0.092701 -0.969444 0.227124
-7.349321 -21.723730 132.369064 -0.313067 -0.926217 0.210025
-12.173981 -19.435207 132.369064 -0.518726 -0.828559 0.210743
-16.333458 -16.098082 132.369171 -0.695951 -0.686188 0.211656
-19.607109 -11.894878 132.369293 -0.835382 -0.506963 0.212429
-21.822191 -7.051008 132.369385 -0.929697 -0.300520 0.212957
-22.860247 -1.825615 132.369415 -0.973927 -0.077907 0.213067
-22.664154 3.501358 132.369431 -0.965644 0.149012 0.212902
-21.241596 8.643978 132.369415 -0.905176 0.368080 0.212540
-18.665192 13.324234 132.369385 -0.795630 0.567479 0.211991
-15.068833 17.287441 132.369354 -0.642705 0.736358 0.211440
-10.640730 20.315044 132.369324 -0.454496 0.865279 0.211485
-5.612356 22.235783 132.369232 -0.241521 0.946355 0.214664
-0.455898 22.928783 132.368912 -0.018030 0.976352 0.215434
4.749666 22.435753 132.369476 0.205067 0.954368 0.217091
9.833376 20.717812 132.369446 0.419078 0.882043 0.215346
14.361799 17.879200 132.369293 0.611760 0.761829 0.212993
18.100878 14.081436 132.369232 0.771098 0.600194 0.212544
20.859106 9.530231 132.369263 0.888661 0.406237 0.212728
22.493784 4.467129 132.369339 0.958312 0.190458 0.212989
22.917681 -0.838993 132.369400 0.976382 -0.035633 0.213094
22.105753 -6.104031 132.369431 0.941828 -0.259930 0.213063
20.098825 -11.043596 132.369415 0.856434 -0.470363 0.212791
17.002298 -15.389824 132.369370 0.724680 -0.655563 0.212312
12.980276 -18.906055 132.369308 0.553554 -0.805459 0.211691
8.246954 -21.398991 132.369217 0.352214 -0.911817 0.211034
1.241835 -22.820213 132.472565 0.040468 -0.929519 0.366548
-3.919542 -22.515266 132.472672 -0.173727 -0.923488 0.342037
-9.021786 -20.997837 132.472626 -0.381789 -0.857615 0.344577
-13.626681 -18.346966 132.472717 -0.569122 -0.745555 0.346767
-17.491142 -14.708927 132.472824 -0.725368 -0.593678 0.348406
-20.411304 -10.279467 132.472916 -0.842488 -0.410192 0.349221
-22.231840 -5.294558 132.472946 -0.914397 -0.204778 0.349205
-22.853584 -0.020693 132.472961 -0.937160 0.011789 0.348701
-22.240295 5.258968 132.472946 -0.909480 0.228010 0.347646
-20.421043 10.260139 132.472900 -0.832626 0.432365 0.346113
-17.488968 14.711517 132.472824 -0.710517 0.613919 0.343904
-13.596174 18.369568 132.472733 -0.549414 0.762891 0.340796
-8.945663 21.030392 132.472626 -0.357636 0.871254 0.336173
-3.782928 22.538765 132.472519 -0.145763 0.922099 0.358450
1.411720 22.809956 132.472946 0.067481 0.932697 0.354292
6.510912 21.906467 132.472992 0.280367 0.898325 0.338240
11.410406 19.801331 132.472885 0.479368 0.807256 0.344303
15.676229 16.629719 132.472839 0.652139 0.673842 0.347350
19.087637 12.567936 132.472870 0.789351 0.504864 0.349340
21.469229 7.833351 132.472900 0.884218 0.309277 0.350010
22.696352 2.676384 132.472946 0.931728 0.097162 0.349917
22.701860 -2.629091 132.472961 0.929254 -0.120351 0.349287
21.482058 -7.797958 132.472946 0.876682 -0.331679 0.348452
19.099295 -12.550129 132.472916 0.776672 -0.525421 0.347437
15.679125 -16.626991 132.472839 0.634523 -0.691135 0.345995
11.403448 -19.805492 132.472748 0.457670 -0.819794 0.344202
6.501661 -21.909580 132.472641 0.255481 -0.904280 0.342062
-0.227861 -22.749401 132.552139 -0.032892 -0.835468 0.548553
-5.371433 -22.107239 132.552200 -0.228225 -0.826027 0.515357
-10.328014 -20.270882 132.552277 -0.411049 -0.747602 0.521661
-14.725718 -17.341423 132.552338 -0.571554 -0.631522 0.523933
-18.327513 -13.478494 132.552399 -0.701408 -0.482416 0.524691
-20.941635 -8.888939 132.552414 -0.794049 -0.307780 0.524173
-22.427387 -3.818016 132.552429 -0.844205 -0.116363 0.523238
-22.703033 1.462275 132.552414 -0.849024 0.081739 0.521993
-21.750980 6.668076 132.552383 -0.808045 0.276019 0.520458
-19.618881 11.518318 132.552338 -0.723175 0.456045 0.518692
-16.417681 15.749207 132.552261 -0.598730 0.612136 0.516538
-12.316116 19.128464 132.552170 -0.440972 0.735670 0.514134
-7.533585 21.467098 132.552094 -0.257887 0.819016 0.512550
-2.332451 22.630577 132.552185 -0.060782 0.835078 0.546764
2.883183 22.566204 132.552658 0.130173 0.828246 0.545036
7.915064 21.328789 132.552414 0.323724 0.795602 0.512074
12.625341 18.925377 132.552368 0.496110 0.695361 0.519950
16.648554 15.504627 132.552383 0.640916 0.560155 0.524836
19.772974 11.251465 132.552414 0.751874 0.396906 0.526451
21.833239 6.393314 132.552429 0.823385 0.213083 0.525959
22.718950 1.189014 132.552429 0.851209 0.017586 0.524533
22.380610 -4.083305 132.552429 0.833145 -0.179425 0.523141
20.833471 -9.139656 132.552399 0.769897 -0.367259 0.521900
18.158262 -13.705743 132.552353 0.664713 -0.535641 0.520811
14.497389 -17.532833 132.552307 0.523134 -0.675289 0.519919
10.047491 -20.411457 132.552231 0.352721 -0.778305 0.519450
5.049696 -22.182936 132.552200 0.162777 -0.838261 0.520406
-5.340504 23.398270 132.500000 0.203250 -0.896178 0.394404
0.000000 24.000000 132.500000 0.007515 -0.928510 0.371230
5.340502 23.398270 132.500000 -0.194629 -0.899577 0.391000
10.413210 21.623253 132.500000 -0.389225 -0.831603 0.396157
14.963755 18.763958 132.500000 -0.564444 -0.722907 0.398508
18.763956 14.963757 132.500000 -0.711004 -0.578168 0.400244
21.623251 10.413212 132.500000 -0.821522 -0.404614 0.401732
23.398268 5.340504 132.500000 -0.890458 -0.210975 0.403205
23.999998 0.000000 132.500000 -0.914168 -0.007006 0.405274
23.398268 -5.340502 132.500000 -0.891316 0.196839 0.408424
21.623251 -10.413210 132.500000 -0.823504 0.390190 0.411816
18.763956 -14.963755 132.500000 -0.714951 0.563743 0.413568
14.963755 -18.763954 132.500000 -0.571111 0.709235 0.413300
10.413210 -21.623253 132.500000 -0.398158 0.818599 0.413963
5.340502 -23.398270 132.500000 -0.204805 0.885961 0.416086
0.000000 -24.000000 132.500000 -0.000894 0.906731 0.421707
-5.340504 -23.398270 132.500000 0.202801 0.882114 0.425142
-10.413210 -21.623253 132.500000 0.395370 0.809349 0.434324
-14.963757 -18.763954 132.500000 0.571991 0.701302 0.425444
-18.763956 -14.963755 132.500000 0.716879 0.548161 0.430817
-21.623253 -10.413210 132.500000 0.870092 0.382035 0.311432
-23.398270 -5.340502 132.500000 0.975717 0.206300 0.073592
-24.000000 0.000000 132.500000 0.993945 0.029626 0.105812
-23.398270 5.340504 132.500000 0.955292 -0.247644 0.161522
-21.623253 10.413212 132.500000 0.807223 -0.427263 0.407232
-18.763956 14.963757 132.500000 0.732253 -0.584762 0.349083
-14.963757 18.763958 132.500000 0.575124 -0.714732 0.397984
-10.413210 21.623253 132.500000 0.394870 -0.814748 0.424574
1.366402 23.460243 132.000000 -0.067363 -0.954135 0.291701
-4.080732 23.142982 132.000000 0.148594 -0.931915 0.330839
-9.307875 21.578079 132.000000 0.362403 -0.888818 0.280476
-14.033228 18.849895 132.000000 0.552861 -0.778873 0.296145
-18.002045 15.105511 132.000000 0.702243 -0.621498 0.347267
-21.000368 10.546780 132.000000 0.803425 -0.434892 0.406665
-22.866554 5.419476 132.000000 0.864310 -0.237423 0.443394
-23.500000 0.000000 132.000000 0.879037 -0.035266 0.475447
-22.866554 -5.419472 132.000000 0.782031 0.148546 0.605278
-21.000368 -10.546780 132.000000 0.553251 0.243821 0.796533
-18.002045 -15.105508 132.000000 0.367463 0.275115 0.888416
-14.033228 -18.849895 132.000000 0.243163 0.288883 0.925969
-9.307875 -21.578077 132.000000 0.147221 0.289615 0.945753
-4.080732 -23.142982 132.000000 0.067498 0.275432 0.958948
1.366402 -23.460241 132.000000 0.002503 0.246859 0.969048
6.739874 -22.512753 132.000000 -0.046350 0.207329 0.977173
11.749998 -20.351597 132.000000 -0.076621 0.158769 0.984338
16.126677 -17.093281 132.000000 -0.083352 0.103354 0.991146
19.633963 -12.913460 132.000000 -0.066306 0.050492 0.996521
22.082777 -8.037472 132.000000 -0.158362 0.050537 0.986087
23.341101 -2.728182 132.000000 -0.812404 0.084435 0.576949
23.341101 2.728184 132.000000 -0.939469 -0.111478 0.323991
22.082777 8.037476 132.000000 -0.902912 -0.325763 0.280407
19.633963 12.913460 132.000000 -0.807204 -0.524828 0.270143
16.126677 17.093281 132.000000 -0.666176 -0.696151 0.267551
11.749998 20.351597 132.000000 -0.488910 -0.830089 0.268178
6.739874 22.512753 132.000000 -0.285140 -0.917874 0.276049
-23.341824 3.646233 132.015854 0.766646 -0.149997 0.624303
-23.560131 -1.736311 132.015625 0.741737 0.022108 0.670326
-22.559834 -7.014273 132.015915 0.622513 0.160550 0.765964
-20.405510 -11.909800 132.016357 0.528324 0.272042 0.804281
-17.193413 -16.206907 132.016632 0.441460 0.372152 0.816466
-13.071760 -19.683178 132.016754 0.338457 0.451342 0.825674
-8.251154 -22.141081 132.016815 0.220443 0.500140 0.837415
-2.989670 -23.438906 132.016876 0.098467 0.522649 0.846843
2.427109 -23.504089 132.016953 -0.022408 0.520219 0.853739
7.706629 -22.337233 132.017014 -0.134196 0.480649 0.866584
12.559202 -20.015549 132.017075 -0.219921 0.401906 0.888879
16.703856 -16.714294 132.017258 -0.266589 0.299367 0.916139
19.880781 -12.777824 132.018005 -0.286984 0.205298 0.935678
21.782301 -9.226044 132.024841 -0.716439 0.339655 0.609385
23.099989 -4.989510 132.017929 -0.766737 0.176197 0.617308
22.438623 -7.820036 132.074295 -0.841182 0.315627 0.439081
23.581228 -2.856003 132.069061 -0.880162 0.124180 0.458141
23.046869 -6.171631 132.151886 -0.911453 0.256597 0.321576
23.838579 -0.897392 132.148376 -0.940067 0.047396 0.337679
23.549524 -4.276907 132.253021 -0.959309 0.179165 0.218233
23.907282 1.121155 132.250946 -0.972907 -0.039908 0.227727
23.884951 -2.168901 132.371582 -0.988733 0.092155 0.117958
23.763678 3.235928 132.370667 -0.983930 -0.131133 0.121184
-21.917118 8.823742 132.016312 0.729043 -0.323282 0.603311
-19.360424 13.542873 132.016403 0.654220 -0.489630 0.576419
-15.789922 17.574875 132.016190 0.541381 -0.638243 0.547314
-11.368233 20.711342 132.016190 0.403499 -0.779127 0.479740
-6.327738 22.764294 132.016495 0.218018 -0.853115 0.473985
-1.041592 23.605610 132.016815 0.019538 -0.850047 0.526344
4.364294 23.222713 132.016998 -0.180218 -0.866163 0.466137
9.565245 21.606270 132.016907 -0.375359 -0.806840 0.456196
14.262255 18.838997 132.016876 -0.550334 -0.700700 0.454040
18.197458 15.072365 132.016891 -0.695480 -0.556611 0.454414
21.161959 10.511951 132.016922 -0.802029 -0.382866 0.458435
22.999975 5.416611 132.016983 -0.859347 -0.189620 0.474939
23.629583 0.110041 132.017151 -0.853255 0.006552 0.521452
-23.366915 -5.400192 132.369995 0.893008 0.251226 0.373394
-23.980778 0.168381 132.364777 0.963973 -0.059404 0.259283
-23.461655 4.919209 132.334488 0.922104 -0.177731 0.343708
-21.993952 9.579521 132.398575 0.917775 -0.396499 -0.021841
-22.134102 9.108604 132.253510 0.793986 -0.276612 0.541361
-20.131336 13.025417 132.352478 0.869169 -0.493617 -0.029789
-19.451797 13.935757 132.242508 0.737473 -0.549914 0.392081
-17.149250 16.764217 132.367004 0.719105 -0.688694 0.092674
-15.929613 17.858044 132.245468 0.631652 -0.726027 0.271847
-13.036814 20.128941 132.366776 0.551035 -0.830558 0.080836
-11.724987 20.859253 132.242706 0.455882 -0.854847 0.247805
-7.851442 22.656574 132.354752 0.356412 -0.933489 -0.039612
-7.441166 22.731747 132.226669 0.202811 -0.769827 0.605173
-2.419739 23.817028 132.261826 0.048099 -0.833187 0.550896
-5.170336 23.282249 132.142380 0.206231 -0.908766 0.362785
0.094612 23.856655 132.149765 -0.011817 -0.968791 0.247598
-3.123537 23.542408 132.066254 0.104352 -0.882728 0.458150
2.193064 23.649387 132.067474 -0.100778 -0.900773 0.422436
-21.259054 -11.107449 132.382050 0.835749 0.504195 0.217509
-21.812901 -9.847509 132.249527 0.899016 0.393124 0.192934
-18.993996 -14.565122 132.254593 0.786342 0.613224 0.074985
-19.468672 -13.781314 132.145645 0.706865 0.465668 0.532443
-15.885534 -17.795811 132.147476 0.609929 0.644311 0.461357
-16.498384 -17.082376 132.066284 0.514613 0.485957 0.706413
-12.232958 -20.356775 132.066757 0.398129 0.599021 0.694742
-17.646345 -16.242352 132.372559 0.704908 0.691566 0.157611
-15.089523 -18.580669 132.255356 0.617193 0.777491 0.120749
-11.453947 -20.926033 132.148544 0.464106 0.805600 0.368259
-7.321327 -22.593594 132.067108 0.260432 0.696901 0.668210
-13.258456 -19.985594 132.372803 0.529528 0.836886 0.138647
-10.249399 -21.629078 132.252853 0.417331 0.895745 0.153217
-6.378553 -22.986919 132.148392 0.265775 0.894097 0.360493
-2.018013 -23.664646 132.067291 0.097518 0.760984 0.641399
-8.123968 -22.565336 132.371429 0.324754 0.937601 0.124256
-4.943596 -23.418196 132.252258 0.198044 0.963603 0.179575
-0.949421 -23.835960 132.147766 0.053052 0.933405 0.354882
3.395792 -23.506693 132.067398 -0.078801 0.766369 0.637550
-2.693823 -23.831331 132.371094 0.103566 0.987220 0.121123
0.611862 -23.925949 132.251328 -0.027836 0.980735 0.193350
4.492197 -23.428070 132.147766 -0.161080 0.918544 0.361012
8.609182 -22.135752 132.067566 -0.250587 0.728776 0.637254
2.834385 -23.814999 132.371017 -0.122333 0.985677 0.116085
6.052877 -23.155811 132.251450 -0.249280 0.946865 0.203240
9.666788 -21.808861 132.148163 -0.364426 0.857481 0.363209
13.324785 -19.662170 132.068069 -0.404628 0.648465 0.644801
8.147150 -22.556957 132.371368 -0.340875 0.933274 0.113151
11.136202 -21.185726 132.252228 -0.456092 0.866153 0.204350
14.279142 -19.111351 132.149536 -0.549087 0.756354 0.355572
17.280100 -16.299355 132.069550 -0.545198 0.550323 0.632380
13.015848 -20.144230 132.372147 -0.541478 0.833532 0.109663
15.606821 -18.147282 132.253937 -0.638950 0.742800 0.199978
18.120863 -15.521297 132.152512 -0.713271 0.624305 0.318571
20.268091 -12.404205 132.074493 -0.743060 0.478672 0.467691
17.209040 -16.705132 132.372955 -0.714007 0.691413 0.110191
19.285013 -14.178243 132.255325 -0.788134 0.581347 0.202190
21.100077 -11.141560 132.154068 -0.834496 0.453178 0.313441
20.526518 -12.404749 132.373199 -0.850207 0.514160 0.113080
21.983850 -9.467625 132.255005 -0.896685 0.389937 0.209535
22.790045 -7.471436 132.372635 -0.943386 0.310934 0.115510
22.434576 8.477444 132.370178 -0.929360 -0.347774 0.123870
19.962187 13.292297 132.369934 -0.827672 -0.546846 0.126167
16.469172 17.433846 132.369812 -0.683862 -0.718186 0.128618
12.132177 20.687748 132.369843 -0.504952 -0.853016 0.131861
7.181116 22.882530 132.370285 -0.299345 -0.944461 0.135591
1.943920 23.904644 132.372818 -0.074913 -0.989162 0.126278
-2.867525 23.815964 132.390976 0.160014 -0.979106 -0.125490
7.528635 22.524944 132.066879 -0.304206 -0.853706 0.422664
12.474234 20.209435 132.066574 -0.489811 -0.759445 0.428168
16.755281 16.831158 132.066559 -0.649153 -0.627156 0.430437
20.147802 12.573891 132.066681 -0.774236 -0.462972 0.431528
22.476286 7.672649 132.066879 -0.857232 -0.275044 0.435321
23.627337 2.417665 132.067398 -0.892476 -0.074825 0.444846
5.569132 23.195007 132.147110 -0.234535 -0.920357 0.312947
10.734266 21.301289 132.145981 -0.436058 -0.834247 0.337468
15.307116 18.293449 132.145737 -0.613111 -0.711373 0.343573
19.063574 14.336792 132.145844 -0.758301 -0.553738 0.344026
21.817358 9.642593 132.146133 -0.864091 -0.368031 0.343365
23.431601 4.468430 132.146759 -0.925166 -0.163986 0.342310
3.524405 23.673107 132.251755 -0.159448 -0.943963 0.288980
8.938601 22.200878 132.249588 -0.371834 -0.893748 0.250907
13.769167 19.574841 132.249100 -0.565419 -0.788445 0.242190
17.847189 15.945004 132.249146 -0.729394 -0.641157 0.238543
20.988985 11.499313 132.249374 -0.855607 -0.460681 0.236030
23.041731 6.470215 132.249863 -0.937970 -0.256731 0.233026
-22.604332 7.269119 132.063797 0.778170 -0.275939 0.564188
-23.648390 2.085608 132.061462 0.830820 -0.100575 0.547378
-23.523590 -3.202549 132.061691 0.691554 0.066355 0.719271
-22.257721 -8.271025 132.064026 0.641023 0.206465 0.739231
-19.892059 -12.971146 132.065567 0.595401 0.350510 0.722939
-23.112350 5.860722 132.136993 0.887416 -0.233741 0.397314
-23.830397 0.639542 132.132446 0.701758 -0.040579 0.711259
-23.460732 -4.268696 132.138977 0.720009 0.106313 0.685773
-22.020782 -9.161697 132.143524 0.744391 0.279608 0.606384
-20.433590 12.098808 132.065186 0.720609 -0.455446 0.522773
-17.229912 16.339779 132.064529 0.599594 -0.600790 0.528714
-13.170204 19.756413 132.063492 0.453592 -0.718020 0.527921
